# .PCD v0.7 - Point Cloud Data file format
VERSION 0.7
FIELDS x y z
SIZE 4 4 4
TYPE F F F
COUNT 1 1 1
WIDTH 718
HEIGHT 1
VIEWPOINT 0 0 0 1 0 0 0
POINTS 718
DATA ascii
-0.17408448 0.094544969 0.24453194
-0.2200985 0.025377464 0.23223777
-0.35688394 0.00090405293 0.58412707
-0.18855859 0.066142045 0.20108481
-0.12495302 0.19125099 0.58220673
-0.099855825 0.24717535 0.42673001
-0.15831009 0.10086627 0.2574487
-0.14165322 0.15049261 0.34750795
-0.16454719 0.14817996 0.43282738
-0.28963068 0.15185399 5.4298501
-0.24588463 0.0062613338 0.47638917
-0.16329615 0.15734166 0.48587504
2.1447713 -0.61500508 6.2065601
-0.11449087 0.18908104 0.37889415
-0.048436839 0.28873709 0.5870685
-0.41262656 -0.18094644 0.56814355
-0.097694628 0.21604018 0.55922824
-0.30167833 -0.019690327 0.54015702
-0.054926381 0.3923718 0.60714614
2.9732928 -1.4280332 4.6117401
-0.19593672 0.053970449 0.52051467
-0.20594515 0.13102335 3.6146624
-0.29973689 -0.091454811 4.5874214
-0.092558213 0.52847362 6.6390634
-0.18234618 0.13161878 0.50072926
-0.66583866 -0.57177818 0.82036126
-1.0916868 -1.2301832 3.9931958
0.20731294 0.75957853 3.2528412
-0.10293473 0.31200814 0.56917912
-0.20636494 0.081705451 0.48649403
-0.66141963 -0.27648765 5.1908298
-0.88034016 -0.98468846 2.0582564
-0.124055 0.23177199 0.50500768
-0.14609018 0.17568596 0.48135513
-0.18283674 0.060403638 0.58315146
-0.23338848 0.0047788946 0.69590342
-0.29324362 -0.1141436 0.68968844
-0.33176529 -0.12469652 0.4039816
-0.30668035 -0.08844512 0.46551529
-0.39198864 -0.2533986 0.42247885
-0.89250594 -0.92311633 5.1472802
-0.20901486 0.021789039 0.21452442
-0.15487112 0.11146598 0.16684516
0.030261192 0.00083695905 0.029115539
-0.24139479 0.019830197 0.40617338
-0.17420001 0.09014558 0.19075648
0.013023545 -0.012090779 0.031008394
-0.14131728 0.15421744 0.30145061
-0.14192018 0.12780009 0.16927887
-0.19644153 0.024976658 0.19329199
-0.15859278 0.10919084 0.16534363
-0.20502846 0.063049845 0.3895877
-0.13931133 0.14773248 0.34188041
-0.17111951 0.092878997 0.24017259
-0.11033777 0.21430278 0.43279436
0.010410802 -0.0096330782 0.029737886
-0.18135604 0.064015277 0.19400135
0.032037329 -0.0014635214 0.02948305
-0.099428192 0.1871082 0.32030103
-0.12769106 0.12126309 0.34766322
0.075242028 0.057136763 0.08581946
-0.16148844 0.090075687 0.22088014
-0.15206681 0.11014607 0.3565774
-0.1477354 0.10897734 0.18991339
-0.12749414 0.14458455 0.35523656
-0.24924828 0.016639447 0.41695952
0.014843851 -0.028351661 0.059277892
-0.053775717 0.062349848 0.11542495
0.015033663 -0.0086718807 0.030719165
0.031560216 -0.0012320977 0.028807081
-0.1950305 0.047561653 0.17487518
-0.23443872 0.0024409797 0.20821385
-0.051155154 0.04021325 0.080001332
-0.25283998 -0.029865211 0.43981776
-0.091340259 0.16634785 0.32584077
-0.19269103 0.067233816 0.20654942
-0.18256165 0.10046118 0.2491779
0.063460231 -0.0028999695 0.057912588
0.068602607 0.050792392 0.074879222
-0.18518488 0.058836255 0.42266357
0.016237577 -0.026275681 0.06027925
0.0058471318 -0.0028004264 0.031531412
0.037402701 -0.03356551 0.060748685
0.039377593 -0.032381896 0.061695717
-0.090053245 0.23422816 0.38717607
-0.19839033 0.077695809 0.46984583
-0.19857098 0.054290488 0.52262568
0.021074424 -0.030625891 0.061314479
-0.1952991 0.04726604 0.17443348
-0.1407261 0.12679949 0.16815829
-0.0021109341 -0.0063846027 0.019249775
0.032225251 -0.0014664844 0.029687542
0.0012211164 -0.0024443092 0.011787345
-0.23261474 -0.0023815874 0.24973193
-0.11196738 0.004043276 0.21766129
0.019466462 -0.02106335 0.059604865
-0.13292722 0.1521032 0.43773776
-0.0015873521 -0.0051062112 0.017179929
-0.2681196 -0.015418529 0.48208284
0.0031328737 -0.00587819 0.028885579
-0.16630735 0.092586666 0.53921759
-0.15777774 0.14401001 0.58267957
-0.11647515 0.17285872 0.53314728
-0.2337092 0.06346596 0.61691797
-0.11293291 0.058748603 0.33855927
-0.033645835 0.051884033 0.10782464
-0.24691871 -0.029629292 0.42928424
-0.17665155 0.057059936 0.56192666
-0.12309476 0.16623302 0.53097999
-0.14008935 0.16202107 0.46297339
0.039063726 -0.03198117 0.060849998
-0.1380226 0.13355048 0.51544535
-0.19144815 0.12483227 0.4359982
-0.14245141 0.095092773 0.37766749
-0.25487888 0.03701302 0.48297474
0.0037265031 -0.00098517467 0.033110458
0.013566443 -0.00764657 0.032712448
-0.0009112301 -0.0081797335 0.020170653
0.022274978 -0.024165228 0.068159424
-0.08224082 0.01940692 0.12207923
-0.00083527312 -0.0084063914 0.020646576
-0.092639461 0.033164266 0.18501231
-0.056625143 0.030791895 0.079332747
-0.09875498 0.10507313 0.38259482
-0.044251472 0.055829816 0.086046629
0.00052254315 -0.0042276219 0.029108083
-0.001799499 -0.00500922 0.014706898
-0.11087147 0.1390937 0.32108912
-0.0016560667 -0.004938913 0.014547914
-0.0067604906 -0.0085869767 0.029279841
-0.0062667541 -0.0075249379 0.01661776
-0.0065511446 -0.0079789395 0.017314207
-0.0066408357 -0.0069769858 0.024042053
-0.001388603 -0.0052475343 0.019560589
-0.0071616294 -0.0094723497 0.032259565
0.015256799 0.010916769 0.028910613
-0.0004688742 -0.0051225373 0.02597269
0.0065210345 0.0025305995 0.036185082
0.0054012756 -0.0034814633 0.031422108
-0.0092179589 -0.0024674821 0.10159429
-0.0079251239 -0.0082978848 0.035051856
-0.0059698522 -0.0059378967 0.029570563
-0.001897403 -0.0062606912 0.035678264
-0.0020175709 -0.0064996365 0.036502756
0.00021123477 -0.0065959543 0.020026367
-0.0078508006 -0.0082992511 0.034736861
-0.0069227512 -0.0091361683 0.031412579
-0.015312723 -0.01309343 0.088723756
-0.0064485804 -0.0075127403 0.019299209
-0.0091413371 -0.0095908893 0.038865052
-0.013122591 -0.0069149034 0.09739691
-0.00033151289 -0.005015302 0.025686514
-0.10632582 -0.02741787 0.16639094
-0.009119032 -0.0067041414 0.076900467
-0.0020354136 -0.0061320732 0.021059992
-0.0049838969 -0.0044796937 0.035646517
-0.0063754199 -0.0074527371 0.019163869
-0.00013918444 -0.0049345968 0.025465889
-0.001534309 0.00063535542 0.013052414
-0.017138908 0.00062041613 0.19436772
-0.0016969029 -0.0054756603 0.019999368
-0.05827041 -0.024926202 0.081420526
-0.0018840688 0.0056281388 0.093859449
-0.0039688884 -0.0052091037 0.040179592
-0.0063445927 -0.0071062781 0.029286476
-0.00653703 -0.0053212899 0.10422489
-0.021470129 0.00032215563 0.22735827
0.0069420803 0.0080376184 0.034348071
-0.011902106 -0.01371366 0.075638779
0.0049044094 0.0067658508 0.028385101
-0.0053566447 -0.0071986793 0.017334763
-0.0064029382 -0.0084094135 0.026355889
-0.0016947361 -0.0043220646 0.011513812
0.0021393676 -0.0055242246 0.02224193
-0.025843969 -0.014765328 0.17478959
-0.0015449777 -0.0050814734 0.017136436
-0.0044189035 -0.0089928601 0.038999826
0.0010062726 -0.0036861266 0.030339615
0.0094738295 0.00037686527 0.036051575
0.0048949257 0.027165115 0.21734042
-0.012587752 0.010644047 0.27256176
-0.10573792 -0.02709244 0.16595583
0.00080839446 -0.0041522426 0.027927957
-0.021616694 -0.012222875 0.14820768
-0.0052030752 -0.0070049767 0.017078938
0.015700391 -0.0035314399 0.030342467
0.0055733668 0.0011603325 0.036226645
-0.005518721 -0.0063642124 0.020540111
-0.0062350887 -0.0082762446 0.026081292
-0.011603246 -0.011806508 0.062172927
-0.0052678501 -0.0075777629 0.018953053
0.0082197729 0.0098498231 0.036986671
-0.053784728 -0.021542322 0.07588245
-0.0073263501 -0.0093719093 0.030373082
-0.053421319 -0.021405376 0.075444087
0.015876362 -0.0053954921 0.033870313
0.0030027968 -0.0062309681 0.02972036
0.0090994928 0.00021921133 0.035533894
-0.13067715 -0.027730292 0.16505356
0.0033032084 -0.0042838738 0.026006015
-0.14154445 -0.066289432 0.18887214
-0.0058871047 -0.0076899957 0.028296007
-0.0084514664 -0.0079720272 0.040750135
-0.0062829489 -0.0083362442 0.026193099
-0.0055078394 -0.0080992039 0.022628631
-0.055415392 -0.01778904 0.083662331
-0.062503703 -0.034752253 0.11302461
-0.00090257433 -0.0042742062 0.029866865
-0.0084820678 -0.0055481242 0.066431046
-0.15037194 -0.040813543 0.23192275
-0.0065959152 -0.0087913275 0.030290227
0.0036178741 -0.0048256274 0.028303446
-0.013971026 -0.011459288 0.11936338
-0.0048989691 -0.0070905704 0.018183518
0.0093415994 0.00036573483 0.035539296
0.017722512 -0.0057001682 0.031304799
0.0048785959 0.028772961 0.22835788
0.017501995 -0.0021400217 0.032943476
-0.012987867 -0.010654442 0.11227744
0.0027345172 -0.0019137081 0.033026025
0.0016168349 -0.0060879108 0.024598597
0.0069282693 0.028291114 0.18062231
0.016329423 -0.0040645814 0.032339904
-0.0053710816 -0.0076847901 0.019116523
-0.0013430101 0.0060497625 0.11288887
0.0061983829 -0.0029113174 0.032948304
0.0046215076 0.019321719 0.13367653
0.015688935 0.053524617 0.21268052
-0.016353609 -0.013844298 0.067139111
-0.0062852828 -0.0082420558 0.026059622
-0.0067195017 -0.0073046884 0.020084856
0.020207591 0.053557668 0.18213071
0.0055642091 0.0014150217 0.037303884
0.020375783 0.0030351572 0.031059515
0.0052646385 -0.0033603769 0.031205881
0.011687685 0.010846842 0.034667436
0.018873794 -0.0061329929 0.03291703
-0.008529529 -0.011370248 0.043078303
-0.052158568 -0.021257805 0.073765993
0.011636034 0.010812297 0.034603063
-0.010689192 -0.010101715 0.051983975
0.012289245 0.0109917 0.035106119
0.015563159 -0.0052752509 0.032614298
0.016693437 0.0036722498 0.036695711
-0.0015940495 -0.0044390564 0.01215082
-0.017532704 0.00075564155 0.19381648
0.018703645 0.050273601 0.16943571
0.0064808736 0.0024641226 0.038057454
-0.0063881171 -0.0073198946 0.016995806
0.014627641 0.0083163884 0.033831373
0.0075416444 0.0048675421 0.034964208
0.0086618494 0.0052882298 0.037186861
0.017103849 0.0030652538 0.035103358
-0.0013664995 -0.0041677277 0.011771705
0.035994831 0.073519938 0.14918333
0.0087332474 0.00563101 0.038181271
0.023969695 -0.0010808037 0.032079265
-0.0019041141 -0.005364669 0.020693768
0.014892968 0.060433652 0.29132801
0.01837441 -0.0023986734 0.034828413
-0.0036789826 -0.0071911174 0.068831652
0.0034576771 -0.0010755142 0.033962235
0.021496672 -0.0033186562 0.032272242
-0.00087365223 -0.0053567146 0.026206624
0.0088630347 0.0055935462 0.039209917
0.011697719 0.021252036 0.030849162
0.01830437 0.032482065 0.045190871
0.018311175 0.03444748 0.062450465
0.02088636 0.0031302001 0.031245215
-0.0079268487 -0.0088180825 0.028280631
0.029449107 0.053515799 0.0800023
0.057619162 0.10567205 0.16622643
0.022779034 -0.0048817829 0.029784739
0.016032236 0.017896704 0.023788754
0.015914675 0.027561106 0.036883388
0.013755728 0.016452542 0.017237315
0.023452038 0.041304924 0.10725148
0.013423948 0.012767808 0.031333845
0.026517821 0.050151575 0.16131534
0.017374465 0.0030708665 0.035388768
-0.0061384114 -0.0079219695 0.020510308
0.014439065 0.024709916 0.032052159
-0.018918825 0.0002697109 0.20420782
0.022146245 0.07502766 0.30408671
0.013957308 0.014962483 0.025851896
0.022304952 0.03412449 0.073260821
0.016470127 0.025997691 0.027165975
0.005505478 0.0013840664 0.036317911
0.020637572 0.032264188 0.050519761
0.012872113 0.017912468 0.016363474
0.016479166 0.026033269 0.027225388
0.01648522 0.026006132 0.02718039
0.004437529 0.021241052 0.15236612
0.014392268 0.016664485 0.018392498
0.013518251 0.015926983 0.017450476
0.018125232 0.027429899 0.072273098
-0.0022482146 -0.0028566117 0.043751378
0.018653512 0.029180648 0.034475077
0.015135667 -0.0081918826 0.029837944
0.015822163 0.013028199 0.024556672
0.013900278 0.014895975 0.025763348
0.013875226 0.015675502 0.020794589
0.0026645791 -0.0019385034 0.033502083
-0.0020537132 0.0018603858 0.04570663
0.012429246 0.021350995 0.13330431
-0.0074772863 -0.0085654361 0.021571312
-0.0091636693 -0.0087364065 0.06333375
0.017849036 0.016138718 0.024428507
0.014877667 0.016738543 0.022915296
0.016703788 0.0089696292 0.030446818
-0.0054439292 -0.0081367632 0.02286911
0.014884966 0.012586493 0.022748701
0.018558666 0.032837585 0.045401119
-0.0053807781 -0.003989466 0.035024356
0.012822778 0.049831998 0.24169247
0.0065096044 0.0024734768 0.037509609
0.018130291 -0.0057284283 0.031672817
0.0051863589 0.0051425025 0.001190014
0.027848409 -0.0040046331 0.034870539
0.017003339 0.038835734 0.10751322
0.027459063 -0.0044064014 0.034807287
-0.0069470662 -0.0065434217 0.035877772
7.4722069e-05 -0.0063585788 0.019603377
0.0014691547 -0.0033472218 0.028802797
0.017141569 0.047836337 0.164169
0.017018741 0.003009547 0.034864932
0.00340016 -0.0010877802 0.034234196
0.014985516 0.015597223 0.01454552
0.004505944 0.02655646 0.2025463
0.024568608 0.040996399 0.092265621
0.004765783 0.011653079 0.049564287
0.016412687 -0.0070531047 0.051291034
-0.012966936 -0.011058532 0.077851601
0.019607063 -0.0028105944 0.030154372
0.012463301 0.0032790273 0.035237473
-0.0046276576 -0.0028033257 0.039767448
0.00064792903 -0.0040468713 0.028218033
0.017202361 -0.0058099823 0.030263659
0.01396253 0.0056829066 0.036985535
0.0086658755 0.00075281318 0.032148205
-0.0061316453 -0.0040361686 0.038585372
0.016959149 -0.0045218677 0.034069277
-0.00099765521 -0.0039696456 0.014299794
-0.0018169173 -0.0049709184 0.01466287
0.023015214 0.034686245 0.074715354
0.0015209431 0.022858275 0.15470518
0.0088422634 -0.0070265681 0.024399657
0.015926769 0.007778469 0.036093414
0.0082739191 0.010016189 0.037836038
0.0044008228 0.018934146 0.13053909
-0.0062271673 -0.008006637 0.034379601
-0.0073272386 -0.0079665072 0.033318687
0.022066137 0.037793845 0.098437756
0.012325866 0.028392849 0.16071719
-0.0099347364 -0.010433715 0.041366745
0.013469191 0.013191525 0.031870104
0.015900334 0.015859971 0.015052222
0.013249287 0.01286165 0.031069426
0.015389959 0.049729936 0.19651045
-0.021873439 -0.011571486 0.14989775
0.0090120593 -0.00070106424 0.037392449
-0.0053524566 -0.0045918361 0.03100281
0.024696641 0.037414078 0.097223088
0.017434072 0.0027639787 0.034937102
0.014340449 0.020263361 0.01646938
0.013955647 0.014917986 0.025973769
-0.0062044887 -0.0084829126 0.026066946
0.013750307 0.013422874 0.032643322
0.015891625 0.0261083 0.023637123
0.023192178 -0.00082608825 0.029825103
0.016069829 0.015868403 0.015284571
0.013097586 -0.0069554057 0.030928027
0.015590356 0.0005759155 0.035333026
0.0085156197 0.00012134932 0.033226941
-0.0053347195 -0.0039381799 0.058483522
0.0087364791 -0.00073411741 0.036257531
0.007548959 0.0089474823 0.041550577
0.007320039 0.011560995 0.037020974
-0.0015954329 -0.0051926081 0.017316259
-0.0017791744 -0.0045479354 0.012331818
0.016555658 0.0036236506 0.036512639
0.0080114901 -0.00093126402 0.01492259
0.014792151 0.0083135292 0.035777707
0.012314989 0.010883806 0.034863852
-0.0035503497 -0.0018893876 0.047447383
-0.013190906 0.022008527 0.27566561
0.018395504 -0.0057382262 0.031838052
0.021179209 0.035011537 0.076448485
-0.0018838417 -0.0061730682 0.035226796
-0.0053867986 -0.0049179397 0.037485205
-0.0052796849 -0.0064944001 0.017700119
0.014503881 0.0093533946 0.038585443
0.021430932 0.059387334 0.19734089
-0.0071598091 -0.0075492202 0.025094895
0.013714178 0.013895256 0.03045224
-0.006254293 -0.0073224818 0.018965118
0.005656362 -0.0036969308 0.032723535
-0.0090738926 -0.010020075 0.031193713
0.015510575 -0.0051890374 0.032803334
0.00058179168 -0.0063915141 0.019661954
0.015658978 0.01128755 0.0289804
-0.0036066254 0.0027395766 0.077837706
0.012672339 0.017586609 0.016030254
0.013293589 0.012773397 0.031181423
-0.0013605262 -0.0050301198 0.019934395
0.021464832 0.0030507767 0.032259192
0.014965262 -0.0084494529 0.030430177
0.013216996 0.017109923 0.010327847
0.024199419 0.00084939698 0.031296439
-0.0065431278 -0.0075201457 0.017242305
-0.00024721009 -0.0058199298 0.016592996
0.014885414 0.02332351 0.016662709
0.01529271 0.010603551 0.028986849
-0.0016961425 -0.0030862628 0.010290608
0.016311668 0.0079373391 0.038245715
0.011964634 0.017065018 0.0099115744
0.010117589 0.024107216 0.072923228
0.012827354 0.018264424 0.01098142
-0.0026379176 0.014967347 0.18046416
0.013541016 0.018379344 0.014594065
0.0027153457 0.0098058945 0.069563709
0.025156565 0.074738793 0.26741508
-0.00063218462 -0.0045085805 0.011270618
0.015688326 0.0038235111 0.030349605
0.0078966413 0.005230498 0.038075559
0.012697465 0.017569432 0.014631481
0.016300237 0.024857923 0.024275679
-0.0018259565 -0.004365752 0.010586441
-0.0065148715 -0.0075832461 0.019426251
0.014601761 0.016986936 0.017960425
-0.0014082777 -0.0027930895 0.0096923485
0.025833571 0.00064336212 0.033564605
-0.0009615618 -0.0053666122 0.012429977
0.013654792 0.018602856 0.014792074
0.015541779 0.025537182 0.021374673
0.017826959 -0.0022335008 0.033705875
0.017368723 0.057871137 0.23236586
0.012553222 0.0022849031 0.035204574
-0.00050145347 0.0051275883 0.076683067
0.003629517 0.013079974 0.082456738
0.013897714 0.026575794 0.050920017
0.015218318 -0.0050120759 0.03153551
-0.0093966853 -0.0080974037 0.048898637
0.01343746 0.02930771 0.071262509
0.0089808367 0.0095500974 0.038430613
0.014292672 0.023717202 0.068143271
-0.0015477615 -0.0041323234 0.011188012
0.0089581301 0.00038233999 0.034683615
0.025944799 0.044421941 0.13232589
0.0013448114 -0.0031231453 0.028138749
0.013284731 0.01670176 0.014076482
0.012607737 0.016320923 0.0096528586
0.0047470145 0.0064608776 0.022987504
0.015190412 0.015821334 0.01443632
-0.0011708015 -0.0051009497 0.010698302
0.011513081 0.016300721 0.0094963033
-0.0014237751 -0.0028146945 0.0097443433
-0.001464281 -0.0028959198 0.0098306928
0.015540143 0.025254058 0.022735378
0.004764122 0.0064904522 0.023169568
0.004600686 0.0062703048 0.022243274
0.014762336 0.015746832 0.012379888
0.011985045 0.0032416331 0.037008662
0.019944113 0.040471304 0.091422573
0.021942265 0.038051851 0.097769246
-0.0014112985 -0.0052178786 0.017257946
-0.0060492046 -0.0072768712 0.016628593
-0.0013261784 -0.0054165279 0.020431431
0.01297645 0.015986059 0.012014107
-0.017045744 -0.013898847 0.079521604
-0.001682126 -0.0051137321 0.016367899
0.0043960791 0.0031162526 0.057382543
0.01335385 0.016695149 0.012398766
0.013462681 0.01627123 0.016865119
0.022742169 0.050859582 0.13250183
0.0034523474 -0.0044571869 0.026998546
0.0061489446 -0.0028361883 0.032774385
-0.0061347061 -0.0082785534 0.024332289
0.015366399 0.025810219 0.025679152
0.018063938 0.0095868995 0.032451481
0.012608731 0.0025544625 0.035708942
-0.0051989248 -0.0074269376 0.018756052
0.021029344 0.0031718093 0.032701373
0.012796475 0.018080648 0.014121936
-0.00097408111 -0.003105561 0.0090835849
0.0088936919 0.010293877 0.041419636
0.015171805 0.0084211538 0.036857612
0.0076653538 0.0009035152 0.0098767392
-0.00058975513 -0.0053374558 0.014023252
0.0048342114 0.0065642367 0.023830501
0.024036746 0.00089505891 0.030947542
0.0048196325 0.00655316 0.023749162
0.01603963 0.026310174 0.027378429
0.0048663071 0.0066180546 0.024175147
-0.00052741566 -0.0052867346 0.013737148
0.018026002 -0.0057597253 0.031634241
0.016189439 0.015351533 0.017937791
0.014929588 0.024313999 0.021592559
-0.00086650066 -0.0033706548 0.010315567
0.004944358 0.0066134096 0.024593348
0.0043975879 -0.0090157595 0.017102201
0.013764692 0.019360129 0.015488535
0.013976258 0.014049573 0.030978333
-0.0066205054 -0.0089216605 0.054322373
0.013903672 0.014014122 0.030945845
0.012269551 0.0074334238 0.038748801
-0.0061298683 -0.0079254024 0.024452893
-0.00074702455 -0.0058004772 0.014730093
0.011453241 0.010703395 0.033916153
-0.00099218078 -0.0054164552 0.01256739
0.014831386 0.0083774263 0.034182455
0.024914013 0.038803533 0.10667665
-0.0016608143 -0.0041041905 0.010280444
0.0047376468 0.006484231 0.022340221
0.013970925 0.016720517 0.014758678
0.022398831 -0.0081167538 0.02756056
0.01294493 0.055587694 0.2796399
-0.0064986823 -0.0082403803 0.028430417
-0.0095463693 -0.0075178132 0.050557911
0.023702515 -0.0089308424 0.029519023
0.0050632847 0.0040290402 0.063746974
-0.0017330699 -0.0051087099 0.016435038
-0.00056092336 -0.0053357701 0.014049125
0.0011576662 -0.0033931711 0.029301524
-0.0010663898 -0.0055968594 0.012801383
0.0048088883 0.0063930703 0.022639055
-0.0021621683 -0.0065334635 0.037047271
-0.0011004301 -0.0056789215 0.012931638
0.011684399 -0.010373274 0.028352195
0.0066565382 0.0024722312 0.036016591
0.016840003 0.011463673 0.032833949
0.016598638 -0.0055123218 0.029291874
0.0035850229 -0.0009396305 0.033142712
-0.0016670175 -0.0046656113 0.012544464
0.018462026 -0.0023037521 0.034892075
0.019407148 0.0010140467 0.033239655
0.011287282 0.024678092 0.067422219
0.025061542 -0.0071835881 0.029936172
0.021783961 0.0031909172 0.032346446
0.015754052 -0.0053121885 0.033481028
0.022287473 -0.0042558466 0.03352797
-0.0090684006 -0.012278186 0.04539407
0.013093888 -0.0069018011 0.030622201
0.0068475022 -0.0078610489 0.022033453
0.0062847259 -0.0027714123 0.032812838
0.021473924 -0.0074468413 0.026014192
-0.013176218 -0.0046596196 0.12875959
0.024053564 -0.0091544855 0.030204816
0.025978407 -0.011102236 0.030545002
0.017677162 -0.00071152614 0.03201443
0.014856086 0.0079126051 0.034781333
0.021312999 -0.00030683898 0.033691943
0.015547647 0.01435022 0.019766415
0.023765216 0.0406661 0.12449899
-0.0092209606 0.0090065952 0.21478446
0.026799973 -0.0085396431 0.032586802
0.015063906 0.0011063135 0.0337306
0.011795876 0.0032005501 0.037076134
-0.015384951 -0.013225626 0.064032696
0.011862993 0.0032250406 0.036961243
0.01567849 0.014332666 0.020593662
-0.00053101889 -0.005165631 0.026119288
0.015732853 0.014333823 0.020627527
0.012600504 0.0033014456 0.037390899
0.015607521 0.014200697 0.020441623
0.01574493 0.01450256 0.020096447
0.015728083 0.00057306193 0.035656109
0.008268767 0.0093984939 0.011261571
0.0037009367 -0.0013956613 0.0083932178
0.022695303 -0.00084916718 0.034960795
0.029117975 -0.0039549824 0.028012104
0.025160454 -0.0061496622 0.033841312
0.0052703968 -0.00031048356 0.0093280505
0.0035101131 -0.0048284475 0.028163653
0.0049647624 -0.00052371231 0.0055740122
0.022322753 -0.0013795967 0.031475689
0.0044507608 0.00012447716 0.004120172
0.013323278 0.015463891 0.019876622
0.006329834 -0.0011921066 0.01049808
0.0044210404 0.00016095326 0.0040647066
0.0049755848 -0.00052006723 0.0055627404
0.0151292 0.0077437637 0.034765728
0.0062619369 -0.0010982244 0.01016072
-0.010482814 -0.0072942236 0.077459052
0.023337923 0.00071624876 0.03077583
0.0033687414 -0.0010824092 0.034147307
0.0087563368 -0.0012185266 0.0095731644
0.0014533461 -0.0063709021 0.025414733
0.0064339144 -0.0015898161 0.011040786
0.0065775798 -0.0013888478 0.011050723
0.0084637376 0.0095588304 0.011073855
0.0097497916 -0.0019062863 0.010129107
0.0086785126 0.0053807707 0.037517868
0.013480574 0.01305862 0.013901991
0.0054967403 -0.00052411354 0.010068634
0.012840178 0.0025950181 0.036524285
0.025799852 -0.0013424597 0.033437826
0.0028406975 -0.0020392628 0.032634679
0.0029352247 -0.0042463373 0.024083475
0.022283485 -0.0038687529 0.034706123
0.0095299082 -0.0014555613 0.015010237
0.013368978 0.013097424 0.013865655
0.0057948837 -0.0012895806 0.011772386
0.006857296 -0.0016194164 0.011753863
0.0087149851 0.0096351327 0.014611288
0.0044540507 0.0043645841 0.003451311
0.0055204104 -0.0036202732 0.032138381
0.0079828762 -0.0023012455 0.016221195
0.008997554 0.0005321005 0.033867016
0.0018071776 -0.0061489842 0.025279863
0.011940076 0.012378925 0.010108347
0.0091368724 -0.001226211 0.014222972
0.013606326 0.014502023 0.02495037
0.0062521799 0.0072431625 0.0074282167
0.012500329 0.0025517559 0.035425384
0.0033210637 0.0024066751 0.0097802086
0.0076129208 0.0084052337 0.012188737
0.0062389593 0.0072212336 0.0074056829
0.0043130913 0.005820943 0.0029600828
0.00049599429 -0.0064708362 0.019815724
0.000477183 -0.0062604975 0.019537915
0.0083269337 -0.00053510303 0.035014778
0.0044777622 -0.0022747042 0.0093326606
0.0037771445 -0.0015390284 0.0086956378
0.0054916623 -0.0020002837 0.010319713
0.0052159159 -0.0016330946 0.0094954027
0.0026888137 -0.0025509042 0.0082935998
0.0030390259 0.0033193151 0.0020181802
0.0022790306 -0.0069826441 0.014045497
0.0044336775 -0.00093868532 0.0089132711
0.0016687984 -0.0072187101 0.012913711
0.0061362362 -0.003243898 0.0092330948
0.0037855729 -0.001535909 0.0087021198
0.0027198207 -0.0030488821 0.0091142571
0.0028196082 -0.0017747129 0.031509776
0.0044921744 0.0065179318 0.0067635174
0.0036672575 -0.0048091095 0.028275896
0.0090002287 -0.003019328 0.010404116
0.0043817954 -0.0020885062 0.0090220924
0.0057018599 0.0082630739 0.0079471031
0.0062214597 -0.0010703625 0.010086281
0.00056237762 -0.0015359608 0.0087182252
0.004148474 0.0066997856 0.0068669766
0.0018770766 -0.0056769829 0.023698857
0.0023300762 -0.0068341019 0.013832887
0.0032398505 -0.0081829419 0.014579853
0.0032523107 -0.0080653019 0.014436015
0.0045907991 0.0072560902 0.0060642199
0.013034714 0.012788523 0.027740661
0.0092585078 -0.0031462689 0.011702611
0.0030204861 0.0026641141 0.0011645993
0.003024997 0.0026646145 0.0011687133
0.0061203674 -0.00099421944 0.011723909
0.0054979501 -0.0035043608 0.031682022
0.029083483 0.044629946 0.074701756
0.0048004193 0.0068053161 0.0082370471
0.0055113356 -0.0032484862 0.031498089
0.011892254 -0.019068124 0.024194177
0.0019764521 -0.0048501869 0.021862065
0.040476017 -0.015306395 0.039596155
0.0043374957 0.0068064826 0.0069672521
0.012384029 -0.020281285 0.025458263
0.0019712509 -0.0047684 0.021732939
0.0046273922 0.0066968338 0.0071136919
0.011712779 -0.018940909 0.023924781
0.0021886372 0.002731818 1.228193e-05
0.0043583 -0.0020077911 0.0088127051
0.0034697377 -0.0010791622 0.034024999
0.0027305998 0.0025385646 0.00081584131
0.0029330039 0.0034631407 0.0019328974
0.00084389496 -0.0034859958 0.02659549
0.0017612386 0.0010912098 0.0070575131
0.014827176 -0.0047056326 0.017984392
0.014945336 -0.0047755009 0.018091287
0.0017255027 0.0012661376 0.0052916948
0.004668491 0.0077524567 0.008840682
0.0045596827 0.0066171656 0.0070001627
0.019514352 -0.011899083 0.028473677
0.022014637 -0.012694577 0.031541109
0.0056335693 0.0075701717 0.0077117844
0.00774534 0.0022397358 0.047337353
0.0031738379 0.0053365286 0.0068436
0.005521873 0.0086116856 0.0069593787
0.02476057 -0.014730817 0.032228645
0.021925097 -0.012623339 0.031374186
0.00294232 0.0024534836 0.00089565804
0.0041525713 0.0067229271 0.0068821446
0.0016742429 0.00077690568 0.0087253312
0.0059663528 0.0089629227 0.0063571157
0.0055866353 0.0087153381 0.007112076
0.015347317 -0.0087249987 0.031428602
0.0060229949 0.0085759088 0.0067302282
0.0064698067 0.0096864998 0.0072047357
0.0030638224 0.0052719209 0.0070566959
0.025071511 -0.011589876 0.03289168
0.006684985 -0.0021824364 0.014065668
0.0023295409 0.00068511639 0.0071073957
0.0044250125 0.0071849739 0.0071116053
0.0025301976 0.0017832217 0.004744478
0.0008745346 -0.0036845875 0.026723888
0.0042782719 0.0069326959 0.0067959148
0.0048694024 0.0079672337 0.0084954109
0.023152176 -0.013493097 0.030081511
0.0038039542 0.0043764487 0.0041639945
0.0075294552 0.006869093 0.018291468
0.0037635632 0.0043505272 0.0040624766
0.0036657644 0.0041862531 0.004135048
0.0047468981 0.0045229918 0.0041478067
0.022754626 -0.013232348 0.029605214
0.0052065416 0.0057857381 0.0061535137
0.024224017 -0.01464911 0.032016791
0.0038109594 0.0043840688 0.0041396883
0.0016973326 0.00081407052 0.0086682849
0.0041624033 0.0048981369 0.0029628645
0.0041553034 0.0048831291 0.0029396261
0.0055493577 -0.0010684376 0.010891439
0.0055849683 -0.0025767018 0.013087477
0.0056976895 0.0082691144 0.0079964353
